  0.00000E+00  0.10958E-01  0.61258E-02  0.30701E-02  0.15228E-02  0.75685E-03
  0.37712E-03  0.18821E-03  0.94016E-04  0.46986E-04  0.23487E-04  0.11742E-04
  0.58707E-05  0.29353E-05  0.14676E-05  0.73380E-06  0.36690E-06  0.18345E-06
  0.91724E-07  0.45862E-07  0.22931E-07  0.11466E-07  0.57328E-08  0.28664E-08
  0.14332E-08  0.71659E-09  0.35830E-09  0.17915E-09  0.89574E-10  0.44787E-10
  0.22394E-10  0.11197E-10  0.55984E-11  0.00000E+00 -0.89361E-01 -0.47576E-01
 -0.23400E-01 -0.11510E-01 -0.56981E-02 -0.28337E-02 -0.14129E-02 -0.70545E-03
 -0.35247E-03 -0.17617E-03 -0.88071E-04 -0.44032E-04 -0.22015E-04 -0.11007E-04
 -0.55035E-05 -0.27517E-05 -0.13759E-05 -0.68793E-06 -0.34397E-06 -0.17198E-06
 -0.85991E-07 -0.42996E-07 -0.21498E-07 -0.10749E-07 -0.53745E-08 -0.26872E-08
 -0.13436E-08 -0.67181E-09 -0.33590E-09 -0.16795E-09 -0.83976E-10 -0.41988E-10
  0.00000E+00  0.48425E+00  0.21301E+00  0.98406E-01  0.47146E-01  0.23057E-01
  0.11400E-01  0.56677E-02  0.28258E-02  0.14109E-02  0.70494E-03  0.35235E-03
  0.17614E-03  0.88063E-04  0.44030E-04  0.22014E-04  0.11007E-04  0.55035E-05
  0.27517E-05  0.13759E-05  0.68793E-06  0.34397E-06  0.17198E-06  0.85991E-07
  0.42996E-07  0.21498E-07  0.10749E-07  0.53745E-08  0.26872E-08  0.13436E-08
  0.67181E-09  0.33590E-09  0.16795E-09  0.00000E+00  0.68251E+00  0.89270E+00
  0.95848E+00  0.98215E+00  0.99179E+00  0.99607E+00  0.99808E+00  0.99905E+00
  0.99953E+00  0.99976E+00  0.99988E+00  0.99994E+00  0.99997E+00  0.99999E+00
  0.99999E+00  0.10000E+01  0.10000E+01  0.10000E+01  0.10000E+01  0.10000E+01
  0.10000E+01  0.10000E+01  0.10000E+01  0.10000E+01  0.10000E+01  0.10000E+01
  0.10000E+01  0.10000E+01  0.10000E+01  0.10000E+01  0.10000E+01  0.10000E+01
  0.00000E+00 -0.10009E+00 -0.72098E-01 -0.40821E-01 -0.21508E-01 -0.11016E-01
 -0.55724E-02 -0.28020E-02 -0.14050E-02 -0.70346E-03 -0.35198E-03 -0.17605E-03
 -0.88040E-04 -0.44024E-04 -0.22013E-04 -0.11007E-04 -0.55034E-05 -0.27517E-05
 -0.13759E-05 -0.68793E-06 -0.34397E-06 -0.17198E-06 -0.85991E-07 -0.42996E-07
 -0.21498E-07 -0.10749E-07 -0.53745E-08 -0.26872E-08 -0.13436E-08 -0.67181E-09
 -0.33590E-09 -0.16795E-09 -0.83976E-10  0.00000E+00  0.11729E-01  0.78432E-02
  0.42637E-02  0.21989E-02  0.11140E-02  0.56037E-03  0.28099E-03  0.14069E-03
  0.70396E-04  0.35210E-04  0.17608E-04  0.88048E-05  0.44026E-05  0.22013E-05
  0.11007E-05  0.55034E-06  0.27517E-06  0.13759E-06  0.68793E-07  0.34397E-07
  0.17198E-07  0.85991E-08  0.42996E-08  0.21498E-08  0.10749E-08  0.53745E-09
  0.26872E-09  0.13436E-09  0.67181E-10  0.33590E-10  0.16795E-10  0.83976E-11
  0.00000E+00  0.58496E+00  0.80735E+00  0.90689E+00  0.95420E+00  0.97728E+00
  0.98868E+00  0.99435E+00  0.99718E+00  0.99859E+00  0.99930E+00  0.99965E+00
  0.99982E+00  0.99991E+00  0.99996E+00  0.99998E+00  0.99999E+00  0.99999E+00
  0.10000E+01  0.10000E+01  0.10000E+01  0.10000E+01  0.10000E+01  0.10000E+01
  0.10000E+01  0.10000E+01  0.10000E+01  0.10000E+01  0.10000E+01  0.10000E+01
  0.10000E+01  0.10000E+01  0.10000E+01  0.00000E+00  0.41504E+00  0.19265E+00
  0.93109E-01  0.45804E-01  0.22720E-01  0.11315E-01  0.56466E-02  0.28205E-02
  0.14096E-02  0.70461E-03  0.35226E-03  0.17612E-03  0.88058E-04  0.44028E-04
  0.22014E-04  0.11007E-04  0.55035E-05  0.27517E-05  0.13759E-05  0.68793E-06
  0.34397E-06  0.17198E-06  0.85991E-07  0.42996E-07  0.21498E-07  0.10749E-07
  0.53745E-08  0.26872E-08  0.13436E-08  0.67181E-09  0.33590E-09  0.16795E-09
  0.20000E+01  0.40000E+01  0.20000E+01  0.40000E+01  0.20000E+01  0.40000E+01
  0.20000E+01  0.40000E+01  0.20000E+01  0.40000E+01  0.20000E+01  0.40000E+01
  0.20000E+01  0.40000E+01  0.20000E+01  0.40000E+01  0.20000E+01  0.40000E+01
  0.20000E+01  0.40000E+01  0.20000E+01  0.40000E+01  0.20000E+01  0.40000E+01
  0.20000E+01  0.40000E+01  0.20000E+01  0.40000E+01  0.20000E+01  0.40000E+01
  0.20000E+01  0.40000E+01  0.20000E+01  0.93303E+00 -0.95910E-01  0.16288E+00
